724.142090 -162.849014 -817.489258 
832.176941 -162.849014 -76.889404 
1159.298096 -162.849014 -677.740967 
353.386932 -213.635864 -573.014404 
249.148651 -210.597992 -677.986694 
452.326294 -199.398849 -118.637383 
104.579124 -194.173309 -233.954041 
188.560699 -162.849014 -901.867676 
140.928207 -162.849014 -1430.573608 
722.718811 -194.627228 -61.673084 
840.932495 -162.849030 -884.803955 
1272.599487 -162.849014 -616.456604 
1027.778564 -225.824982 -676.288696 
350.535950 -162.849014 -927.622314 
1382.408081 -162.849014 -131.118774 
1419.628662 -196.849762 -443.183350 
208.699020 -162.849014 -1204.753662 
601.474426 -162.848999 -1243.845215 
313.334351 -162.849014 -453.608459 
946.076172 -162.849014 -786.777283 
527.735657 -162.849014 -958.189758 
39.756561 -190.885864 -580.977173 
62.017189 -162.849014 -1040.972656 
112.884682 -203.369568 -1372.149658 
587.227173 -162.849030 -988.538330 
655.804810 -195.035736 -64.066010 
1473.000000 -166.875610 -224.475159 
637.229797 -162.849014 -847.639404 
808.478394 -162.849014 -134.344177 
1228.276367 -162.849014 -48.533459 
417.425903 -210.281342 -1329.936768 
708.525818 -162.848999 -1031.988647 
658.895081 -219.851349 -1167.062378 
1056.773560 -174.882568 -915.397949 
765.384155 -193.692841 -56.199604 
862.432373 -232.899994 -697.992188 
123.227074 -162.848999 -786.042603 
1308.977417 -188.075287 -691.022583 
351.789490 -217.949585 -785.156006 
799.219849 -162.849014 -594.197754 
610.321899 -209.240601 -250.028610 
549.927734 -162.849014 -834.836853 
418.328461 -162.849014 -1030.614746 
165.388412 -162.849030 -1295.943237 
1478.232178 -187.815018 -168.952911 
326.637085 -204.647247 -275.667694 
1277.408569 -162.849030 -459.219604 
617.862427 -217.243103 -1239.468018 
1175.120361 -223.961868 -371.128174 
1017.313904 -175.707520 -27.000000 
265.234253 -162.849014 -1111.441162 
1040.609985 -186.674210 -15.085374 
0.000000 -181.703140 -1464.751221 
1041.959595 -220.127075 -288.967926 
855.036438 -232.883606 -720.382263 
855.382141 -162.849014 -474.392090 
127.025139 -205.783508 -892.640503 
27.316591 -162.849014 -1414.887939 
54.863834 -193.464813 -943.440430 
401.696075 -187.249268 -1481.546143 
1070.798950 -216.874481 -881.087708 
30.968174 -162.849014 -762.546448 
898.202881 -162.848999 -439.008148 
356.129364 -202.826233 -1390.298584 
701.005615 -187.018600 -17.102781 
996.267944 -194.008606 -1003.732117 
1059.490845 -223.732147 -353.807495 
1352.568359 -209.267151 -196.236221 
698.220215 -162.849014 -899.002563 
595.715393 -232.567642 -902.090454 
1429.912964 -162.849014 -444.299957 
295.063538 -162.849014 -1283.473389 
131.093262 -202.771606 -585.106873 
116.515854 -196.447754 -314.955536 
66.958298 -162.849014 -377.836792 
19.841888 -187.486176 -1250.555420 
1150.396973 -163.945435 -27.000000 
66.574097 -195.463867 -1002.904053 
1402.050903 -200.819977 -194.043274 
854.361450 -223.448715 -433.106567 
191.275894 -162.849030 -530.103638 
1489.800537 -185.840164 -17.395954 
45.260353 -191.825409 -552.864014 
14.368312 -177.849030 -227.930298 
65.282501 -162.849014 -904.894043 
432.957703 -186.460800 -13.835114 
779.432983 -225.619522 -507.559204 
328.049011 -162.848999 -1312.620850 
287.520081 -162.849014 -679.402527 
397.157288 -215.771301 -570.451599 
704.749634 -162.849014 -998.931641 
559.775269 -223.928558 -571.725342 
1136.529663 -162.849014 -167.474899 
712.147339 -230.095200 -624.943115 
450.780884 -162.849014 -775.325806 
779.264404 -162.849014 -1048.903442 
216.592575 -162.849030 -79.938454 
149.550583 -162.849014 -109.903564 
10.282751 -177.849014 -284.245941 
588.027405 -162.849014 -1277.495361 
499.417419 -220.177872 -536.342102 
319.365662 -216.711212 -803.640869 
45.960705 -162.849030 -1096.831055 
839.528137 -162.849014 -1117.646240 
1055.877686 -226.440613 -555.610474 
264.552063 -211.578888 -1339.026855 
141.698044 -162.849014 -1042.114868 
945.318359 -217.791412 -986.114990 
1045.845093 -225.179260 -665.723633 
1046.712158 -170.701401 -925.459473 
1381.252808 -199.874725 -560.603577 
927.045776 -214.957962 -1067.593262 
312.701172 -201.051193 -209.518723 
731.430237 -233.832367 -830.043030 
934.948486 -229.168594 -728.919800 
161.373749 -184.861084 -1495.535889 
860.403198 -162.849014 -1089.022705 
493.360779 -222.267960 -651.883179 
50.077290 -162.849014 -358.253448 
653.067505 -217.570709 -398.924988 
1329.156006 -202.868179 -109.947601 
62.423325 -194.755295 -928.942200 
569.446899 -215.316193 -388.471313 
166.706390 -162.848999 -570.845459 
363.754242 -162.849014 -164.027618 
286.781830 -162.849014 -1291.884521 
1382.150513 -199.418198 -576.058350 
113.311829 -192.610062 -137.391037 
158.617310 -204.022659 -579.063477 
640.378113 -211.618103 -285.128571 
167.715179 -162.849030 -688.914795 
1096.907227 -218.005615 -223.778687 
478.457275 -162.849014 -1111.067383 
724.945251 -162.849014 -72.365089 
87.563110 -162.849014 -735.891724 
1268.704468 -162.849014 -582.362244 
460.497284 -211.827682 -1312.819946 
497.973938 -162.849014 -770.253540 
910.898682 -231.823944 -577.192993 
204.786667 -162.849014 -872.896362 
636.568970 -229.829620 -671.257202 
555.053650 -211.572708 -319.563660 
141.223785 -208.207352 -882.040344 
365.680389 -162.848999 -934.993530 
703.895935 -162.849030 -814.972778 
964.091614 -186.906219 -16.444458 
589.307373 -172.382996 -1382.864136 
807.114868 -162.849014 -546.091614 
111.446037 -203.123993 -833.098511 
105.229156 -162.849014 -591.834106 
456.142242 -162.849014 -404.395477 
843.710999 -233.467468 -715.481323 
869.987915 -218.164337 -1053.126343 
54.578850 -162.849014 -665.608643 
1374.786621 -162.848999 -92.473801 
195.832123 -207.559448 -659.990601 
0.000000 -178.642044 -1042.960205 
1379.991577 -204.585739 -246.067535 
953.038818 -231.025024 -557.265991 
35.839771 -190.217194 -1354.828857 
384.422791 -190.447800 -1462.809814 
655.809204 -162.849014 -463.175842 
1136.539185 -224.345200 -334.154480 
152.727325 -194.560822 -145.974319 
35.055016 -162.848999 -1189.348511 
802.770508 -222.428696 -434.075745 
1229.761475 -216.792679 -674.850952 
729.669128 -235.799927 -786.762878 
887.641541 -224.092346 -432.193787 
95.781975 -200.449951 -1139.226562 
403.169830 -214.398438 -489.648560 
410.294922 -222.047745 -841.789429 
1018.771362 -229.254181 -481.596619 
120.978088 -193.818527 -177.232803 
773.178711 -162.849014 -821.341003 
1012.028259 -162.849014 -191.180450 
364.889648 -211.364502 -435.573425 
770.526367 -162.849014 -783.686279 
9.936616 -177.849014 -947.164307 
1075.783936 -162.849014 -480.803375 
645.154785 -162.849030 -498.071350 
695.241577 -214.385620 -317.754364 
709.686890 -220.734558 -438.749481 
1005.190063 -229.365265 -513.628296 
276.571075 -162.849014 -190.486374 
39.134296 -162.848999 -1251.354736 
349.239197 -199.705963 -167.479843 
667.413086 -162.849014 -279.430298 
586.929199 -162.849030 -975.422241 
1254.421021 -162.849014 -428.090637 
1242.587402 -162.849014 -57.095596 
221.498428 -162.848999 -1207.313965 
799.142517 -162.849014 -808.035889 
332.368134 -162.849014 -870.399902 
1263.908203 -217.109131 -542.864990 
416.139618 -188.552826 -1473.910156 
646.539185 -230.537979 -932.957825 
342.612061 -162.849014 -506.621460 
1135.441528 -221.405670 -650.091492 
676.838440 -162.849014 -146.947876 
477.004333 -162.849014 -441.242859 
988.372314 -227.173584 -703.184204 
456.699951 -162.849014 -1003.240906 
247.027908 -190.883148 -1460.259521 
677.133362 -162.848999 -83.176788 
435.217163 -218.899048 -1265.841431 
359.121826 -162.849014 -583.672729 
55.929741 -162.849030 -993.689941 
588.595276 -221.966141 -513.539185 
560.184204 -225.463959 -1076.078613 
76.341766 -162.849014 -180.950867 
707.297729 -208.697418 -198.996094 
235.748962 -196.266235 -145.693878 
587.989746 -162.849030 -531.586670 
649.792297 -177.849014 -1339.610718 
256.763031 -195.017136 -112.008179 
99.447701 -201.075760 -743.473877 
23.998030 -188.195709 -530.142883 
33.866817 -162.848999 -134.936646 
582.776611 -186.922546 -16.540092 
1048.629639 -162.849030 -69.879333 
12.925817 -186.305542 -983.944580 
1270.267944 -177.848999 -706.508118 
42.530521 -162.849014 -650.730774 
557.140747 -162.849014 -543.850098 
247.205536 -192.815460 -71.933105 
1285.840698 -220.059219 -254.971497 
799.264771 -162.849014 -450.314819 
488.066101 -203.195099 -1368.840942 
204.307312 -203.450760 -441.144287 
500.600494 -162.849030 -583.235962 
382.450073 -198.567612 -130.956207 
658.865784 -233.650940 -801.937317 
193.312454 -162.849014 -1266.677246 
1074.887817 -226.977020 -412.327698 
169.897232 -209.503510 -816.471008 
507.352570 -208.155655 -270.980713 
79.172813 -162.849014 -603.865845 
186.754303 -193.834778 -1442.969238 
853.946411 -229.404434 -552.393005 
595.346619 -227.544800 -1017.472168 
806.666687 -229.701065 -859.096558 
729.985718 -228.993195 -595.514526 
800.026733 -162.849030 -237.313629 
1444.722412 -162.849014 -499.330109 
408.717133 -163.034424 -1473.000122 
603.155273 -162.849030 -105.093521 
520.572937 -162.849014 -586.777588 
172.712799 -213.582870 -1147.378540 
158.771851 -162.849014 -369.297302 
737.245972 -177.849014 -11.028858 
719.318848 -215.684311 -1239.071289 
898.586060 -162.848999 -968.339966 
46.618565 -192.057251 -800.982422 
110.188820 -162.849014 -365.801178 
354.049194 -162.849014 -521.489990 
964.191528 -162.849030 -28.001965 
1366.912354 -204.000275 -463.145386 
282.548859 -213.680878 -746.207031 
420.781311 -162.849014 -996.145142 
98.458710 -162.849014 -512.217773 
237.883636 -216.188049 -975.095276 
757.235840 -162.848999 -810.890625 
494.457458 -217.584457 -464.898254 
589.438110 -230.023209 -794.388062 
947.737793 -231.314972 -553.900452 
39.670574 -190.871201 -307.881287 
21.151314 -187.709717 -1233.499756 
902.726807 -216.823425 -1050.299072 
516.521118 -162.849014 -75.262314 
127.544540 -205.872177 -1299.592773 
98.097595 -193.020142 -193.921814 
1466.236328 -189.862839 -191.524002 
743.676636 -162.849030 -1177.547119 
97.180069 -162.849030 -1106.622070 
685.583252 -211.567429 -265.390930 
400.096069 -162.849014 -262.422333 
377.180023 -162.849014 -356.243805 
1377.199341 -187.075104 -17.433851 
1374.359375 -162.849014 -525.146729 
93.095390 -162.848999 -166.478210 
1360.155640 -207.662140 -336.158508 
145.606003 -162.849014 -275.934570 
833.775757 -162.849014 -903.961182 
620.555725 -220.678345 -474.544434 
899.935059 -226.174072 -844.505432 
590.389099 -162.849014 -410.112732 
1255.043335 -214.149628 -742.612488 
752.030273 -201.383438 -101.250031 
253.527649 -162.849014 -428.379120 
50.357628 -162.849014 -1113.269409 
734.275452 -162.849030 -75.211678 
1399.031738 -198.055573 -525.915222 
1256.248901 -193.870773 -743.751099 
502.631226 -229.207916 -964.592529 
1227.148193 -221.876892 -355.209076 
329.747864 -162.849014 -342.336487 
1011.585571 -219.716293 -876.908936 
442.651764 -191.902191 -45.710155 
614.285767 -227.912079 -632.467102 
494.405853 -177.849030 -22.440010 
660.117676 -232.712769 -879.737305 
1334.210205 -212.401123 -230.297455 
259.602661 -162.849014 -1292.528564 
364.234222 -177.849014 -1492.670776 
1132.858154 -223.258499 -538.310425 
802.530457 -162.848999 -630.179504 
1133.279541 -221.730850 -283.217957 
458.933502 -162.849014 -660.940857 
903.731689 -162.849014 -777.139282 
1109.820068 -219.007462 -794.486450 
960.365845 -230.773743 -552.299988 
593.565857 -162.848999 -81.532890 
548.236206 -162.849014 -51.246544 
294.414429 -200.156677 -1405.936401 
665.411255 -162.849014 -1257.345215 
1361.797363 -162.849014 -336.125183 
1163.232422 -162.849014 -95.878189 
1397.589600 -175.948532 -574.581909 
234.052551 -216.863647 -1016.965454 
242.934235 -215.718887 -940.249268 
2.005123 -177.849014 -409.101807 
1028.682739 -218.467392 -887.671204 
778.557373 -162.849014 -547.596375 
1012.991821 -190.821472 -39.379593 
157.982361 -162.849030 -1120.919189 
81.251930 -197.512329 -451.493439 
1379.358887 -190.586716 -38.004395 
893.615601 -220.263763 -353.148010 
386.771088 -162.849014 -1457.519653 
582.739258 -227.773773 -701.948547 
559.787598 -229.914307 -860.712891 
798.272339 -203.621506 -114.360291 
338.459869 -168.015289 -27.000000 
625.245544 -200.991394 -98.953484 
49.200119 -192.497986 -371.097717 
415.141296 -162.848999 -778.873718 
663.541748 -162.849014 -478.981689 
1115.980103 -217.331345 -202.393173 
764.516235 -215.780350 -1211.778076 
358.602020 -162.849014 -992.050720 
44.757347 -162.849030 -324.036621 
1067.801025 -191.640045 -44.174572 
101.878922 -162.849014 -102.177505 
124.396095 -184.808975 -4.158910 
1420.714966 -197.633804 -368.182495 
500.308044 -205.909439 -1348.141846 
1172.359253 -162.849014 -268.158630 
1483.095337 -177.848999 -184.054306 
524.277893 -225.857849 -750.577515 
175.547546 -162.849014 -447.527893 
41.473091 -162.849014 -1452.791016 
532.818726 -162.849014 -157.202713 
33.500896 -189.817932 -776.886230 
1243.605957 -217.431732 -593.786743 
1158.517822 -162.849014 -361.744324 
1305.559814 -217.292038 -215.296646 
1219.412598 -162.849014 -363.419189 
51.109600 -192.823914 -1178.305542 
823.341187 -202.429596 -1176.658936 
277.661285 -162.849014 -476.335541 
1181.667725 -211.472839 -160.352448 
459.624268 -202.377960 -175.196701 
5.251225 -177.849014 -929.953674 
1395.586914 -201.923462 -314.627625 
522.672791 -223.668365 -648.734802 
221.960663 -162.849030 -318.279327 
244.376648 -162.849014 -282.008972 
617.023499 -213.948700 -341.414551 
1050.328003 -219.448776 -844.133850 
1441.257202 -177.848999 -538.709412 
955.822449 -162.849014 -91.701393 
662.738647 -162.849030 -260.402252 
32.750725 -162.849014 -1183.266357 
45.656971 -191.893143 -286.930206 
915.510986 -162.849014 -949.014526 
33.065395 -162.849014 -1433.531860 
287.740540 -162.849014 -777.130249 
209.922073 -207.801865 -637.679382 
379.034515 -162.849014 -487.879242 
242.755768 -202.369995 -296.138153 
766.112427 -162.849014 -55.453644 
138.158890 -162.849014 -254.235046 
658.805420 -162.849014 -565.028748 
995.272827 -162.849014 -466.133362 
88.912117 -199.277222 -659.021973 
1500.000000 -179.950378 -216.073898 
308.747833 -162.848999 -1000.079773 
593.422119 -210.649597 -285.208435 
66.244324 -195.407593 -883.756104 
562.115723 -162.849014 -1391.903687 
58.031918 -186.016617 -1488.766968 
120.141830 -177.849014 -1490.866821 
688.823975 -201.246796 -100.449562 
1292.886475 -162.849014 -330.957458 
188.879898 -210.477158 -817.653442 
1238.964233 -220.814117 -221.106903 
1180.535645 -162.849014 -160.709930 
444.112152 -215.605469 -449.086334 
696.368408 -234.346695 -830.723633 
165.485397 -162.849014 -1338.397949 
755.969360 -162.849014 -160.044281 
996.011169 -162.849014 -136.366379 
498.788208 -162.849014 -472.180603 
573.630798 -162.849014 -390.403931 
374.673553 -217.980530 -731.403809 
929.209473 -170.497284 -26.999998 
141.114868 -162.849030 -513.141846 
1423.287354 -162.849014 -484.373871 
1251.032959 -192.791626 -50.920521 
881.650024 -226.198441 -476.797882 
430.287384 -162.849014 -1274.779663 
27.000000 -167.151428 -351.456604 
461.320801 -205.446808 -235.870651 
42.442783 -191.344421 -521.029297 
1162.670532 -221.261047 -261.647430 
829.645508 -232.998047 -762.572021 
1306.770020 -162.849014 -290.743988 
35.192509 -190.106720 -638.275146 
1024.487793 -162.849030 -882.897705 
290.179993 -162.849014 -357.335205 
100.252480 -201.213120 -1323.833130 
937.349365 -230.846268 -614.031616 
1278.418457 -194.809662 -721.581482 
272.890656 -215.045135 -835.395752 
909.310303 -230.466782 -550.707336 
1056.282104 -162.849014 -715.642334 
932.905273 -162.849014 -301.311890 
557.593811 -220.940643 -1177.878296 
311.301147 -162.849014 -187.278748 
1349.324341 -162.849014 -509.085510 
596.979370 -180.180359 0.000000 
1290.281616 -162.849014 -604.019043 
250.589233 -177.848999 -1475.571167 
961.309570 -162.849014 -213.079590 
360.503754 -162.849030 -1176.817993 
188.330170 -162.849014 -721.135193 
336.565033 -208.264130 -354.256470 
1222.210693 -221.282593 -407.697479 
393.384308 -220.921936 -828.255859 
218.205414 -162.849014 -228.087311 
366.818726 -213.166138 -517.907837 
115.377335 -162.849014 -374.162842 
1288.438843 -206.914215 -133.648682 
952.378662 -228.941849 -502.369202 
1002.329834 -226.416168 -711.659790 
27.000000 -177.205154 -661.830017 
120.668114 -162.849014 -94.117966 
721.171204 -222.188950 -463.080536 
366.636444 -173.445679 -26.999998 
378.338043 -222.122482 -1213.652588 
261.658936 -162.849014 -993.050049 
579.901978 -162.849014 -1094.280762 
960.702332 -227.971191 -479.508209 
237.366058 -162.849014 -446.202087 
461.887939 -162.849014 -623.355591 
380.282776 -212.957001 -475.304108 
1325.177124 -162.849014 -433.823425 
839.989990 -162.849030 -549.633179 
92.143379 -177.849014 -4.859593 
706.842285 -162.849030 -1070.665527 
881.891479 -223.248688 -417.703125 
960.115234 -162.849014 -358.447998 
208.372314 -162.849014 -921.243408 
15.266700 -177.849014 -964.106812 
309.860535 -162.849014 -1327.072021 
324.699005 -214.018066 -660.729126 
461.642181 -219.435425 -1244.716187 
930.234924 -162.849014 -290.237091 
314.451782 -222.675217 -1103.471802 
171.536423 -213.382034 -1288.000488 
1014.659973 -224.822144 -759.937927 
586.491943 -162.849030 -388.349243 
17.637810 -177.849014 -466.546387 
1420.359619 -197.694489 -207.771057 
276.778564 -222.955948 -1207.978027 
309.869110 -162.849014 -1161.470093 
841.708374 -206.704163 -132.418152 
0.000000 -181.957001 -1479.943604 
521.490723 -221.174423 -531.170654 
673.725586 -232.525909 -711.741455 
1330.768677 -162.849014 -36.281303 
529.195862 -225.704620 -731.306458 
0.325108 -177.848999 -78.687317 
117.893829 -194.825378 -233.294006 
327.513184 -162.849014 -1415.476685 
578.961853 -162.849030 -230.807068 
897.595459 -230.952087 -721.904907 
1288.944824 -162.849030 -463.556458 
1014.095276 -214.202972 -182.027756 
1071.998291 -223.780807 -680.269836 
496.946716 -213.090317 -373.984192 
0.000000 -184.097565 -69.474991 
990.339783 -162.849014 -695.309692 
27.000000 -176.282333 -1288.526733 
977.453857 -191.057785 -40.763748 
161.235107 -162.849014 -1218.437622 
303.293274 -162.849014 -1012.297668 
222.073822 -216.392258 -1023.123108 
185.264481 -209.021729 -756.108643 
158.000961 -211.071411 -1206.306152 
858.352417 -162.849030 -213.023102 
113.351761 -162.849014 -107.351425 
54.347404 -162.849014 -880.406311 
764.890686 -236.650970 -738.000061 
1363.040894 -162.849014 -437.137512 
877.215454 -162.849014 -787.749634 
165.228134 -162.849014 -1370.050049 
484.926758 -162.849014 -830.522705 
478.571289 -162.849030 -627.627197 
893.924500 -229.491699 -537.578674 
1478.802856 -177.849014 -358.481750 
825.088196 -162.849014 -632.302917 
1136.911133 -162.849014 -536.187988 
1037.077881 -162.849014 -451.675201 
925.782776 -230.345932 -679.596680 
209.176254 -162.849014 -34.593937 
174.983246 -192.618546 -1450.093750 
662.041260 -162.849014 -486.534393 
625.034851 -203.429382 -127.709969 
1144.687988 -218.083633 -780.226257 
843.279297 -162.849014 -453.916107 
1457.157471 -162.849014 -28.317560 
301.001526 -162.849014 -718.251282 
917.352722 -162.849014 -733.526733 
115.288345 -162.849030 -746.500793 
69.533997 -162.849014 -143.192276 
1473.000000 -172.425293 -131.271912 
1488.854248 -186.001709 -261.607086 
811.482056 -162.849030 -537.152771 
1316.805786 -208.400848 -595.179810 
990.143188 -228.137451 -636.048035 
1113.859497 -162.849014 -40.835121 
1222.551270 -219.161209 -543.230103 
1129.432007 -176.029129 -27.000000 
480.543030 -212.699738 -1303.793091 
1173.123657 -162.849014 -278.992188 
1337.619385 -211.397125 -312.692505 
1087.278809 -220.395859 -275.571655 
190.489929 -216.617615 -1183.398193 
598.639221 -227.786469 -1010.940552 
284.454926 -162.849030 -532.198303 
65.118217 -195.215363 -466.193115 
17.377428 -187.065475 -1381.407715 
504.835632 -162.849014 -1217.460815 
480.515839 -162.849014 -242.989685 
923.833496 -162.849014 -116.198669 
750.750305 -234.878448 -704.618652 
869.113708 -214.752899 -1130.099731 
115.765785 -191.050690 -1459.278076 
125.232941 -202.363495 -579.548706 
407.723328 -224.805374 -981.147400 
1087.677002 -162.848999 -174.232971 
798.883484 -231.237076 -832.616089 
337.762512 -162.848999 -969.401550 
1029.331177 -214.048996 -175.443237 
142.743774 -162.849014 -415.797394 
1092.487427 -162.848999 -150.665298 
162.543671 -204.142883 -575.389771 
394.719055 -213.713013 -476.954590 
874.954163 -223.263977 -934.401611 
1036.409180 -214.866119 -960.278809 
473.859558 -162.849014 -272.545532 
1156.085938 -162.849014 -348.812012 
468.628723 -162.848999 -433.253845 
1042.541504 -162.849014 -189.967896 
1465.564331 -165.645462 -506.607300 
589.420654 -187.976471 -22.713764 
332.669952 -222.218262 -1037.425415 
353.502533 -197.765930 -126.913277 
180.103714 -162.849030 -85.731926 
362.729828 -220.667267 -889.965332 
82.036926 -162.849014 -980.457947 
653.433350 -228.541077 -618.180908 
1227.411743 -162.849014 -686.013611 
27.000000 -167.261719 -132.365738 
659.513611 -231.815521 -899.961670 
815.198425 -211.151321 -203.380280 
1012.063660 -227.467758 -448.165283 
1175.869873 -216.818329 -777.269897 
835.138672 -162.849030 -522.232849 
302.760864 -162.849014 -1009.910278 
339.331055 -214.290161 -638.540649 
324.656219 -189.571274 -1467.944214 
845.943726 -188.978516 -1154.056274 
393.158051 -212.552216 -424.675812 
374.854858 -162.849014 -383.728333 
1355.139648 -199.343216 -89.298836 
225.879242 -185.050690 -1494.425293 
567.548706 -225.378143 -622.950806 
114.982864 -196.774261 -334.422668 
1014.919434 -225.169174 -751.936951 
940.654968 -162.849014 -892.567017 
674.011414 -206.788742 -174.610321 
781.948975 -177.849014 -0.363053 
596.334839 -162.849014 -727.595276 
16.248425 -177.849014 -1353.480713 
880.132080 -229.325546 -539.968750 
138.414627 -200.296158 -447.905884 
271.219360 -219.687592 -1063.588745 
964.383179 -188.389618 -25.134016 
872.025146 -222.501724 -406.849976 
419.911194 -162.849014 -350.272766 
91.597603 -162.849014 -371.884949 
543.987183 -162.849014 -395.541199 
1155.644775 -162.849014 -92.893402 
66.111351 -162.849014 -1031.810303 
1367.795410 -206.470367 -340.603546 
444.996399 -221.245483 -1210.109375 
1160.335205 -162.848999 -382.369843 
773.306702 -236.181381 -743.940002 
709.932739 -195.289734 -65.553909 
735.196289 -162.848999 -1224.417480 
1209.364990 -162.849014 -530.473511 
364.897705 -218.757782 -792.533142 
898.506104 -162.848999 -140.194229 
867.795410 -217.823486 -315.037476 
597.350586 -162.849014 -1174.927490 
423.316833 -162.849014 -1289.461548 
396.957764 -162.849014 -812.107056 
831.052734 -162.849014 -721.873657 
498.608582 -162.849014 -388.796997 
3.845988 -184.755554 -489.907684 
1049.713501 -214.549316 -178.374161 
173.329437 -204.461884 -564.753174 
114.001923 -203.560303 -893.194763 
707.563416 -162.849014 -1050.209961 
376.203186 -220.575806 -853.021912 
975.321228 -217.082138 -255.671997 
1423.753296 -162.848999 -328.255157 
734.602905 -221.339569 -1107.621460 
1329.227539 -162.849030 -365.748932 
626.538086 -220.266968 -463.839111 
44.449806 -162.849014 -1281.753906 
336.397583 -209.241730 -401.862427 
175.826691 -162.849014 -874.981812 
1428.770996 -196.258575 -112.338882 
1341.592529 -210.079498 -347.933289 
234.177979 -220.431702 -1188.943237 
631.954285 -162.848999 -599.482483 
283.284485 -162.849014 -363.631317 
586.288391 -162.849014 -378.696777 
902.606445 -225.464966 -857.651855 
536.526306 -218.776459 -1233.458496 
821.652588 -230.756134 -592.803223 
1376.204590 -162.849014 -241.716537 
927.584717 -217.717041 -288.142944 
108.825569 -162.849030 -762.095581 
593.129639 -162.848999 -938.620117 
203.970642 -162.849014 -481.816437 
1299.567749 -162.849014 -123.235977 
1436.698486 -194.905289 -240.743988 
629.755920 -162.849014 -105.808548 
179.646561 -200.762161 -370.863281 
15.384426 -186.725250 -1313.154419 
120.566116 -199.234253 -439.722443 
315.534058 -209.546829 -1350.079346 
668.947510 -216.968658 -1227.881958 
677.283508 -162.849030 -413.375854 
722.156982 -162.849014 -649.421082 
601.500244 -220.834320 -485.557281 
553.257019 -225.337234 -655.478760 
1093.575928 -186.536880 -14.281010 
417.121124 -215.304230 -499.702728 
289.732758 -162.849014 -423.447449 
196.431564 -191.215897 -60.973091 
196.049438 -162.849014 -109.179466 
946.972900 -162.849014 -627.576599 
831.775452 -162.848999 -129.015778 
841.746033 -162.849030 -241.394409 
1080.263428 -222.847031 -716.517090 
472.532593 -162.849030 -908.490540 
511.597260 -223.400543 -662.542542 
750.606201 -162.848999 -120.514069 
1353.732178 -162.849014 -108.678635 
156.116928 -162.849030 -128.436493 
722.673889 -162.849014 -1182.391113 
645.431152 -215.489044 -360.454834 
532.117798 -162.849014 -226.820450 
434.673828 -162.848999 -33.505104 
754.412109 -162.849014 -707.345032 
614.098267 -162.849014 -108.236496 
1038.856323 -226.520874 -599.549683 
741.523376 -230.166077 -908.328064 
34.828201 -162.849014 -1181.552856 
879.424744 -228.319901 -817.148621 
701.046936 -219.814178 -1153.280396 
117.459518 -204.150574 -754.232666 
1497.265991 -184.565750 -432.949829 
733.679077 -227.407410 -562.268860 
60.321362 -194.396469 -1378.972900 
1239.612671 -221.973389 -313.041351 
1067.284424 -162.849014 -755.238525 
284.254425 -162.849014 -308.549377 
567.106140 -162.849014 -221.233826 
526.203186 -162.849014 -1429.006714 
902.437988 -221.324158 -370.701477 
11.509943 -184.718567 -7.623603 
852.794495 -223.563400 -949.882324 
72.830696 -196.531937 -1138.237915 
112.121269 -192.178131 -1452.673584 
1131.272583 -217.851791 -798.813599 
1179.845825 -219.117126 -669.266418 
546.171021 -162.849014 -466.549805 
215.191406 -216.281555 -1034.393311 
66.530937 -162.848999 -581.812012 
373.658875 -162.849014 -1094.222290 
1172.014893 -162.849030 -668.843872 
654.695923 -162.849014 -1089.733521 
174.309357 -197.075058 -205.719330 
644.044312 -225.876846 -568.785583 
1311.249756 -210.000626 -151.728546 
1059.838867 -223.753601 -717.097168 
600.227295 -162.849014 -923.886597 
309.091949 -187.721024 -1478.782715 
999.659058 -226.058624 -742.373535 
50.034657 -162.849030 -521.706177 
785.456543 -162.849014 -1103.534912 
252.884735 -211.248077 -700.356812 
615.176270 -162.849014 -862.216187 
443.953613 -162.849014 -585.602478 
64.098076 -195.041214 -631.265198 
595.265137 -162.849014 -458.305725 
118.001320 -162.849014 -603.553650 
603.287476 -186.690384 -15.180077 
170.175339 -208.722519 -778.089539 
838.513489 -193.910126 -1161.486572 
73.870155 -196.709412 -903.795410 
373.047821 -210.948700 -395.801178 
30.421898 -162.849014 -793.037170 
436.199707 -211.411621 -365.572876 
171.927994 -162.849014 -515.527161 
1124.321655 -219.632629 -766.039062 
738.434509 -219.894562 -410.041901 
594.822510 -162.848999 -802.929077 
866.245544 -232.280548 -726.855469 
435.801788 -195.925842 -69.280067 
750.374268 -162.849014 -774.867615 
953.237061 -162.849014 -854.079346 
442.419250 -162.849014 -210.403152 
355.271667 -162.849014 -930.963623 
885.371582 -222.069702 -392.681732 
96.831604 -162.849014 -926.232971 
581.853882 -213.482391 -346.656219 
1405.729492 -200.191986 -341.491852 
221.808823 -162.849014 -830.355835 
586.377563 -162.849014 -944.566162 
747.497437 -235.652893 -783.862610 
1288.523315 -206.463852 -131.010635 
717.139282 -219.072754 -402.426880 
34.448589 -189.979736 -593.296143 
1197.418091 -162.849030 -443.882782 
491.883270 -213.932037 -392.916077 
296.595001 -167.177979 -27.000000 
516.269043 -162.849014 -668.490112 
1116.508301 -204.859985 -121.615265 
169.083221 -194.197647 -131.936157 
282.947937 -162.849014 -1171.847900 
767.955017 -162.849014 -254.065796 
899.083557 -224.157410 -890.342651 
461.052124 -217.869812 -517.520874 
1248.582642 -162.848999 -378.057312 
105.422562 -162.849014 -1102.879028 
173.089050 -162.849014 -294.586426 
992.887695 -180.804352 0.000000 
976.552246 -226.569000 -444.898895 
152.451691 -162.849014 -1076.324829 
527.289062 -228.847504 -887.661438 
163.822296 -162.849014 -969.353760 
43.197945 -162.849014 -1358.115112 
177.539627 -162.849014 -348.964539 
444.857819 -162.849014 -1428.945557 
757.320557 -222.624146 -456.810577 
497.747253 -219.551315 -510.121552 
1216.133301 -162.849014 -687.620911 
1134.456055 -222.971481 -552.171936 
246.831268 -162.849014 -1365.441406 
86.946922 -162.849014 -1428.543945 
669.136902 -162.849014 -412.963196 
692.852539 -218.225601 -1191.557251 
548.813965 -195.779175 -68.421013 
370.341003 -212.735779 -488.624237 
115.510345 -192.389282 -121.423584 
285.720734 -162.849014 -689.401184 
784.290466 -162.849014 -247.606384 
273.389832 -162.849014 -1109.631592 
25.991365 -188.535980 -1114.215942 
342.409119 -204.552490 -267.239410 
816.273376 -162.849014 -878.188599 
1214.474976 -200.201263 -94.325157 
972.017029 -162.849030 -958.065796 
934.851746 -162.849014 -867.851990 
966.680725 -162.849014 -53.626251 
192.392624 -162.848999 -581.409729 
347.710846 -162.849014 -729.991211 
559.979309 -221.985092 -1153.753052 
514.732727 -206.708084 -238.972656 
1000.799072 -177.849030 -988.086853 
233.562225 -162.849014 -1431.314941 
771.873047 -229.561615 -589.532654 
467.818817 -162.849014 -872.890381 
1258.381714 -214.451630 -705.730713 
35.472595 -189.662109 -1467.412231 
743.985596 -221.052399 -1110.774780 
862.311218 -162.849030 -700.724670 
485.558502 -215.991425 -436.723877 
677.829956 -223.514771 -1078.778687 
11.456478 -177.848999 -1262.424072 
287.432922 -205.560791 -342.342499 
1082.680664 -162.849030 -578.620483 
93.763130 -200.105316 -1320.155396 
1160.242432 -199.455826 -89.958466 
1256.495117 -209.030563 -146.046021 
116.604218 -162.849014 -1102.860229 
957.720459 -162.849014 -677.142822 
1103.375366 -162.849030 -260.274048 
311.727905 -162.849014 -769.933044 
406.872162 -162.849014 -1244.219238 
100.705864 -199.475372 -499.312042 
360.378296 -222.912811 -1004.067261 
1092.731812 -162.849014 -207.958771 
758.447754 -220.054993 -1122.491211 
430.332733 -162.849014 -902.374634 
824.150085 -224.875443 -949.258728 
538.390503 -225.868347 -1074.612427 
182.144150 -215.192902 -1159.624146 
426.264404 -223.718704 -1161.432129 
1300.320679 -162.849014 -246.901154 
520.400208 -162.849030 -138.017761 
733.060913 -162.849014 -1085.503296 
1038.239014 -162.848999 -372.476562 
404.353394 -204.344818 -1373.186646 
798.365417 -162.849030 -52.793343 
294.409973 -162.849014 -1133.219727 
181.965820 -203.378998 -491.616302 
424.942505 -188.636414 -26.579601 
1453.834961 -190.662918 -503.230591 
502.955383 -226.434433 -829.894897 
1100.011108 -177.849030 -4.489912 
430.034943 -162.849030 -365.739349 
265.191650 -162.849030 -867.982300 
893.023682 -162.849014 -607.898926 
144.532944 -208.772293 -982.691040 
63.414242 -194.924469 -374.329071 
1007.848633 -162.849014 -568.879639 
732.447144 -216.591309 -346.456665 
129.106140 -206.138779 -854.655212 
63.327221 -162.849014 -454.357239 
871.784424 -217.754486 -1060.472168 
765.277954 -220.524750 -1105.182007 
263.294525 -162.849014 -972.094971 
1484.234863 -177.849014 -376.301025 
67.616409 -177.849030 -22.955084 
1095.990967 -217.322189 -210.490005 
140.033020 -203.950073 -620.425537 
753.669800 -225.423981 -1007.502441 
1093.752686 -162.849014 -347.797485 
207.848618 -208.872208 -1354.882202 
1122.952515 -162.849014 -382.187805 
552.764893 -191.042480 -1443.886475 
1251.573975 -162.849014 -409.042206 
434.361298 -162.849014 -1295.426514 
132.446335 -177.849014 -1491.217285 
585.637085 -162.849014 -791.402283 
683.298523 -162.849014 -344.744812 
0.000000 -181.405991 -1275.933105 
824.629456 -162.849014 -362.915710 
696.480347 -231.155457 -901.871948 
434.916504 -224.206360 -886.573853 
1104.960693 -220.057922 -775.913452 
345.160034 -162.848999 -244.155548 
1206.273926 -162.849014 -707.492920 
415.314789 -162.849014 -1397.382446 
110.241035 -162.848999 -267.939270 
40.283875 -162.849030 -904.339294 
1265.026611 -216.007843 -587.250122 
704.863220 -226.545532 -556.966980 
389.272949 -219.625504 -1265.562134 
72.318649 -190.251358 -122.468628 
276.395569 -162.849014 -256.197357 
1186.243042 -216.509827 -773.778381 
318.445068 -162.849014 -216.975220 
516.124939 -162.849014 -604.718872 
1080.792847 -162.849014 -309.373810 
956.673523 -162.849030 -238.480759 
158.938934 -192.156433 -95.314003 
1439.064941 -194.501266 -187.963318 
1304.293091 -213.898773 -174.563354 
979.151855 -225.247665 -417.395935 
1134.197510 -217.353043 -807.014282 
122.457268 -205.003708 -1259.029053 
558.747131 -220.625702 -499.093811 
280.873657 -162.849014 -608.125488 
981.980225 -214.826981 -207.810410 
685.021912 -162.849014 -280.740326 
764.165527 -226.586670 -971.071289 
385.124939 -166.607086 -27.000000 
769.855652 -217.372498 -1170.922241 
517.632385 -162.849014 -1011.849915 
452.189392 -162.849014 -364.314636 
622.641418 -162.849030 -40.646736 
889.469238 -162.848999 -293.927155 
626.380310 -207.657471 -211.714508 
360.963745 -225.378601 -1147.040161 
1176.784546 -162.849014 -783.402954 
497.198883 -221.707535 -615.557007 
289.820129 -213.538437 -721.774536 
545.478943 -162.849014 -524.370544 
1313.115234 -186.981995 -16.888498 
773.606689 -211.154846 -220.678726 
1040.197266 -188.893951 -28.088419 
236.565125 -219.382843 -1132.537842 
1119.584473 -219.316193 -240.597046 
708.756104 -218.290634 -390.256744 
98.107666 -198.558289 -461.302917 
434.446320 -162.849014 -1064.395508 
965.217651 -162.849014 -570.814636 
684.772827 -162.849014 -493.762878 
1185.018433 -162.848999 -782.800171 
854.050903 -162.849014 -971.821655 
328.616943 -217.984497 -842.785706 
412.686920 -224.929581 -975.162231 
1167.127319 -220.211853 -635.507629 
1337.952637 -162.849014 -319.255646 
543.047852 -162.849014 -341.574677 
286.978699 -207.351837 -429.918335 
211.954712 -162.849014 -75.595230 
981.900269 -190.595520 -1018.099731 
322.221771 -162.849014 -1013.660828 
381.186646 -162.848999 -1122.757446 
1412.872925 -162.849014 -241.703522 
181.780991 -197.089691 -188.387512 
566.327271 -162.849014 -48.434357 
1254.138184 -222.211487 -255.816193 
717.603455 -162.849014 -890.532166 
1473.664673 -177.849014 -497.782104 
572.111328 -202.622314 -133.490326 
1089.938232 -177.849014 -12.491568 
76.668015 -197.187012 -1225.781494 
704.511414 -233.872833 -703.658752 
633.330200 -226.652359 -1024.213257 
292.806610 -162.849014 -1317.536743 
1339.264526 -162.849014 -291.163727 
322.868469 -162.849014 -848.059021 
858.829834 -162.849014 -784.852051 
208.254761 -162.849014 -1452.181641 
438.497589 -162.849014 -303.493347 
284.090088 -207.655609 -451.559753 
241.272095 -218.635742 -1085.100464 
612.559692 -162.849014 -796.371704 
961.263794 -162.849014 -364.279083 
1186.783081 -223.785416 -302.147247 
14.894929 -186.641708 -760.731201 
1405.818848 -162.849014 -282.022034 
495.274445 -210.486633 -322.603577 
1411.474609 -199.211258 -356.862183 
437.058685 -162.849014 -332.414001 
460.859589 -162.849014 -91.717094 
348.735474 -162.848999 -274.657349 
960.431946 -162.849014 -41.353664 
150.306274 -199.857056 -397.994873 
923.060608 -162.849014 -399.879089 
1258.205688 -162.848999 -358.390564 
918.874329 -162.849014 -76.299316 
1438.985352 -193.413055 -474.128967 
413.272858 -209.396759 -334.772125 
62.498722 -194.768158 -1120.715576 
682.075623 -212.167847 -1277.767456 
186.803101 -162.848999 -271.778870 
953.002747 -162.849030 -69.552170 
26.801397 -177.849014 -923.781738 
296.535126 -162.848999 -252.972046 
510.139038 -223.718307 -681.406067 
456.577667 -162.849014 -614.423157 
144.863388 -162.849030 -635.437012 
105.250969 -162.849014 -1103.817871 
299.284698 -208.195862 -440.962830 
1229.462158 -177.849014 -769.977783 
286.263519 -162.848999 -203.755127 
805.606079 -222.460999 -433.547394 
470.214935 -207.686005 -276.970886 
909.566467 -162.849014 -131.606766 
562.527588 -227.511963 -738.102417 
1243.927856 -162.849014 -548.158081 
695.204224 -211.929276 -268.642517 
873.063477 -169.308578 -1099.108154 
156.325851 -173.937592 -27.000000 
1015.393066 -222.148071 -340.392334 
685.386230 -162.849014 -254.186508 
1124.111816 -162.849030 -177.364532 
1500.000000 -179.498932 -134.067657 
640.859924 -162.849014 -189.038345 
704.503784 -209.531158 -216.828293 
1380.709106 -201.944031 -466.642761 
534.955750 -162.848999 -81.928711 
828.096680 -226.713791 -509.287262 
209.825989 -162.849030 -521.606384 
787.547852 -162.849014 -783.863647 
301.047913 -162.849014 -141.080429 
621.583069 -200.567566 -1367.435059 
1203.302124 -162.849014 -619.825623 
697.484070 -216.356491 -1231.645996 
1266.586914 -186.674820 -15.088989 
320.041321 -217.850601 -857.023315 
1102.488647 -219.335495 -248.064468 
419.291809 -211.151367 -367.371124 
223.773438 -162.849014 -1195.159180 
907.049622 -162.849014 -423.943481 
1473.000000 -176.770233 -358.401703 
469.200165 -222.159271 -1181.335205 
532.600342 -173.807007 -1439.571289 
6.151353 -177.849014 -1413.755859 
4.679192 -184.897736 -1262.440674 
863.280518 -227.529892 -850.915100 
969.447083 -216.807709 -252.616150 
810.125793 -213.148941 -245.433838 
387.392181 -162.849014 -853.562988 
477.105804 -162.849014 -1247.632324 
857.568787 -162.849014 -147.325089 
350.308441 -214.659210 -629.858765 
523.206482 -219.322693 -487.754913 
455.640289 -162.849014 -265.712555 
125.487831 -162.849014 -429.476013 
240.451080 -162.849030 -1280.628662 
725.028381 -225.643326 -530.570435 
1250.803589 -162.849014 -342.609924 
108.744240 -162.849014 -655.470093 
530.028259 -162.849014 -687.166199 
1189.982666 -162.849030 -334.265167 
435.925079 -207.643692 -1345.567627 
1166.736450 -162.849014 -203.675064 
1057.032104 -162.849014 -819.998596 
167.119110 -195.724899 -163.295105 
292.060699 -162.849014 -580.414490 
686.867737 -224.680206 -1049.648071 
38.219395 -162.849014 -44.936501 
1045.600830 -162.848999 -85.188461 
737.319336 -225.757141 -527.755676 
1321.389893 -203.705811 -114.854424 
593.565552 -212.587723 -1287.900879 
619.818054 -198.903625 -86.723549 
91.051109 -199.642365 -998.053894 
231.509613 -162.849014 -130.874741 
498.413513 -208.057953 -272.729462 
807.230103 -231.488770 -613.430298 
637.514954 -162.849014 -486.765747 
90.623238 -162.849014 -826.728638 
627.851929 -162.848999 -287.086792 
882.043152 -221.656326 -385.792694 
588.463989 -162.849014 -775.220093 
1036.806763 -162.849014 -472.483765 
155.301285 -207.568573 -758.280823 
177.773254 -204.181885 -540.504761 
289.579895 -162.849014 -1194.146973 
1251.622070 -162.849014 -100.987770 
518.216309 -162.849014 -130.618591 
1098.475830 -208.240433 -141.417542 
287.649261 -162.849014 -864.837524 
619.742615 -162.849014 -280.833130 
541.906006 -162.849014 -288.167542 
646.840027 -212.616608 -1279.841309 
1132.276733 -222.894867 -563.387939 
538.497437 -207.035828 -235.683807 
1081.864746 -177.848999 -0.545719 
1417.306519 -198.215668 -140.727692 
1384.928467 -203.742950 -183.031769 
265.736572 -221.115448 -1275.148560 
124.870483 -203.182114 -619.949829 
1117.107910 -162.849014 -136.178879 
242.126633 -162.848999 -1341.226562 
372.699249 -162.849014 -89.729866 
1049.933472 -177.849030 -932.924683 
939.068420 -162.849014 -192.903824 
91.483139 -174.542297 -27.000000 
627.062134 -162.849014 -1302.456055 
374.537109 -219.981537 -1262.728271 
312.882660 -216.951599 -830.899170 
1083.865967 -162.849014 -724.359863 
396.265625 -203.089020 -215.662155 
603.943970 -206.598770 -199.833832 
571.834167 -162.849014 -107.689667 
135.821167 -162.849030 -290.095398 
645.860107 -206.901093 -188.517944 
445.573425 -221.543228 -732.258423 
478.903320 -162.849014 -894.055481 
934.374329 -162.849014 -140.261917 
673.564148 -230.184555 -642.712097 
459.624786 -162.849014 -1065.507690 
270.488922 -162.849014 -840.511841 
332.779785 -218.962250 -879.945923 
597.150085 -215.382431 -378.321106 
254.480362 -214.024719 -830.571960 
443.719666 -162.849030 -829.772034 
755.723816 -215.126999 -1235.144409 
868.627686 -216.005875 -1102.635498 
1190.418091 -213.750916 -173.697235 
62.275047 -162.849014 -778.326172 
227.545898 -162.849030 -133.420242 
564.438599 -182.379852 -1435.561401 
282.491272 -162.849014 -580.743774 
285.653625 -217.101654 -903.880676 
27.756548 -188.837311 -906.122803 
111.241959 -162.849030 -602.667480 
535.132080 -162.849014 -605.495789 
234.214035 -207.955292 -586.441833 
211.468170 -213.250641 -897.037231 
153.317459 -162.849014 -894.048889 
1391.005005 -162.849014 -574.353699 
987.018860 -203.244965 -112.154625 
1366.427612 -162.849030 -66.399521 
1371.730835 -162.848999 -390.360413 
424.410400 -210.839401 -1325.021973 
625.037598 -162.849014 -902.059875 
1397.540527 -201.589935 -171.526672 
535.550232 -210.671890 -309.625885 
444.178467 -162.849014 -1385.953125 
994.205078 -226.195435 -749.303101 
366.856873 -198.056244 -1418.240479 
460.039978 -198.254364 -92.552475 
31.053310 -189.400085 -1019.269897 
214.897369 -190.858444 -46.175186 
357.518341 -197.312332 -116.177673 
403.417480 -162.849014 -125.018394 
456.301819 -162.849014 -1135.950195 
286.990326 -207.216034 -423.333679 
117.406738 -162.849014 -150.196655 
78.076454 -189.969940 -1465.608887 
935.826294 -162.849014 -832.509094 
760.981812 -225.500351 -512.818481 
1225.544800 -222.485535 -320.667725 
658.164734 -162.849014 -360.474518 
1157.709229 -162.849014 -317.974823 
88.661598 -162.849014 -1028.381348 
159.660309 -162.849014 -1389.373535 
1249.858765 -162.849030 -672.375061 
604.478821 -162.849014 -791.169617 
1180.862305 -208.599060 -143.518280 
1135.560669 -162.849014 -275.219177 
1263.791382 -162.849030 -37.309044 
92.267250 -162.849014 -1307.704468 
639.330383 -220.731033 -1154.221069 
1009.100037 -223.148804 -363.013611 
547.013855 -222.412643 -539.692627 
192.194199 -193.494476 -108.299698 
466.593933 -162.849014 -1008.473755 
170.800507 -203.025406 -1389.131836 
375.156494 -212.064926 -444.606873 
496.822968 -207.776825 -1335.657715 
401.759583 -210.063416 -352.874115 
1359.363525 -207.704453 -339.530762 
769.026978 -235.622513 -764.645752 
61.935604 -162.849014 -1116.053833 
557.134216 -162.849014 -1120.180664 
531.658936 -162.849030 -1232.927856 
1114.579346 -225.112976 -471.702057 
1330.049072 -212.970871 -289.753235 
90.041573 -199.470032 -600.702576 
277.820618 -162.849014 -1123.155518 
928.515259 -227.134506 -794.500671 
959.770752 -162.849014 -924.652954 
526.835205 -230.324417 -979.216064 
793.070435 -162.849030 -449.884766 
496.104309 -225.231400 -788.346497 
271.405273 -213.038803 -742.108276 
654.870911 -231.298859 -913.096375 
305.098206 -210.566818 -541.407532 
491.711609 -207.891663 -272.179932 
1473.000000 -174.130707 -29.394121 
46.294224 -192.001907 -335.671173 
295.194366 -209.992340 -537.578857 
644.720337 -162.849014 -457.935181 
250.423553 -162.849014 -417.325012 
1427.638428 -196.451904 -215.519257 
656.159546 -162.849014 -533.479126 
557.663513 -162.849014 -153.177979 
1044.171631 -162.848999 -215.080276 
1063.125610 -197.682510 -936.874451 
1431.710083 -195.756836 -298.973022 
1089.744141 -162.848999 -365.963165 
69.090118 -195.893402 -630.878784 
1193.039429 -214.083557 -806.960693 
29.134159 -162.849030 -817.170959 
651.632080 -219.132446 -430.754669 
1031.590820 -177.849014 -941.756348 
604.607056 -224.614822 -1079.621338 
1021.238892 -220.995941 -314.927887 
30.121414 -162.849014 -1465.286743 
454.075348 -193.856949 -57.160789 
989.944946 -162.849014 -300.862549 
556.963379 -223.932098 -1111.366089 
979.483093 -225.486786 -422.041260 
1423.116455 -162.849030 -548.986206 
58.882618 -194.150879 -458.856140 
476.120514 -162.849030 -535.876282 
535.452820 -162.848999 -149.494278 
274.941833 -208.966919 -536.961182 
1445.930298 -192.966324 -448.126434 
1147.089600 -220.232864 -691.961731 
224.892166 -198.379944 -192.465546 
553.068848 -162.849014 -288.434174 
195.927109 -214.159424 -978.436035 
1442.326050 -162.849014 -500.594543 
1017.562195 -162.849014 -344.107391 
523.239685 -217.721146 -1261.604614 
1146.412842 -165.180939 -825.758789 
349.556854 -211.974487 -502.042786 
1453.233765 -162.849014 -410.274994 
519.425293 -162.849014 -554.623047 
831.446777 -162.849030 -303.119659 
530.460205 -162.849014 -991.856018 
584.226074 -177.849014 -1402.319580 
8.552150 -185.558884 -1462.345947 
811.936035 -189.321472 -30.592688 
693.322388 -229.512268 -939.621399 
1008.476562 -216.580933 -231.914520 
1414.083984 -198.765808 -109.097656 
556.279663 -188.075867 -23.295965 
686.455200 -162.849014 -835.309875 
1081.292969 -222.676376 -724.529114 
44.297081 -162.849014 -603.013245 
524.072571 -205.905075 -219.043640 
555.938904 -211.815933 -1298.823242 
677.704041 -162.849014 -1254.760132 
0.000000 -179.617493 -99.086693 
847.240540 -233.335785 -713.773865 
948.857666 -162.849014 -244.484406 
985.024658 -162.849014 -683.300415 
528.682434 -221.412033 -1177.385132 
905.276306 -231.440765 -668.298584 
574.467346 -230.036438 -831.170288 
1040.819702 -162.849014 -516.946960 
95.459236 -162.849014 -611.153076 
409.903687 -162.849014 -597.943176 
1359.392822 -203.555908 -535.091492 
643.639343 -199.994873 -93.116020 
1040.115845 -162.849014 -905.876404 
1473.000000 -168.693665 -114.769623 
483.739868 -162.849014 -772.528564 
522.012207 -224.235321 -677.704956 
858.299316 -162.849014 -996.141968 
1392.656738 -199.745392 -489.395935 
979.123718 -162.849014 -294.893433 
1061.297363 -224.485641 -665.781860 
27.000000 -168.977722 -888.470642 
811.877075 -224.144775 -464.625549 
600.635864 -222.483185 -518.892456 
1390.228882 -162.849014 -109.136589 
454.598145 -162.849014 -391.451294 
793.953918 -162.849014 -901.739075 
1004.826477 -228.389618 -577.462036 
1208.881226 -217.927002 -662.090576 
1154.345703 -218.316803 -206.210815 
387.697693 -162.849030 -267.054443 
787.183899 -230.716934 -855.918213 
578.414734 -162.849014 -104.122185 
1000.074219 -229.117554 -544.327393 
934.792419 -162.849014 -739.446777 
1088.526489 -220.497635 -782.538208 
13.755314 -177.849014 -221.651016 
342.791901 -193.805130 -56.857166 
622.966675 -162.848999 -942.221802 
1272.021973 -162.849014 -245.820312 
719.642090 -207.660278 -1280.357910 
1415.032959 -198.603806 -254.069519 
662.450012 -230.592728 -655.479187 
1055.005249 -162.849014 -539.868286 
908.738647 -227.951874 -500.645844 
29.022905 -189.053497 -520.224121 
510.154083 -229.969574 -992.914185 
1205.282349 -162.849014 -617.573242 
331.626495 -214.978333 -1309.899414 
622.767090 -162.849014 -596.421448 
787.931335 -186.753647 -15.550637 
349.839935 -162.849014 -518.829285 
497.031158 -162.849014 -754.397400 
27.000000 -170.558350 -1214.700684 
888.982788 -223.011887 -410.029358 
1010.604492 -162.849014 -626.454834 
939.067322 -162.849014 -737.297974 
107.987297 -202.533554 -758.951843 
14.849481 -177.849014 -1066.885010 
887.170349 -162.849014 -48.173065 
487.442627 -162.849014 -891.045715 
315.739502 -213.619766 -663.126953 
545.799866 -206.598785 -223.918060 
948.136597 -206.890594 -133.510315 
121.640961 -162.849014 -757.152344 
1310.364502 -177.160324 -27.000000 
452.109955 -227.953583 -1025.997437 
128.501282 -200.294815 -471.773254 
255.504913 -215.913010 -919.273560 
297.792633 -162.849014 -70.554077 
450.125061 -219.872986 -1238.947510 
1316.007935 -208.911926 -576.471313 
27.000000 -165.686523 -917.162537 
576.432312 -219.082001 -1212.809204 
944.223816 -162.849014 -323.366852 
72.844666 -162.849014 -978.857422 
267.914032 -177.849030 -18.323528 
270.827637 -221.645462 -1159.069092 
472.093781 -206.312668 -1349.496948 
333.147095 -162.848999 -261.498077 
1352.713989 -162.849014 -241.633026 
745.238464 -227.905670 -567.446289 
1265.747559 -217.591431 -507.635162 
986.190552 -162.849014 -121.996758 
1014.697266 -162.849014 -166.927261 
569.726257 -229.997925 -971.631592 
933.201721 -231.473175 -585.653687 
1023.597534 -226.917908 -618.018188 
701.122864 -162.849014 -277.665588 
27.000000 -169.288315 -598.865417 
41.833405 -191.240372 -1309.587402 
1390.845581 -162.849014 -353.246613 
305.967102 -223.683044 -1203.927246 
939.409790 -162.849014 -808.275696 
1130.421021 -215.911530 -186.353836 
412.721802 -217.263855 -604.942749 
495.563293 -162.849030 -1007.830261 
946.577026 -162.849014 -700.715088 
910.625000 -203.180725 -111.778328 
1088.740601 -162.849014 -630.626587 
168.478516 -162.849030 -953.549438 
988.185852 -177.849014 -2.915003 
229.157440 -190.545273 -1462.238770 
